NCOLS 193
NROWS 32
XLLCORNER -158.079716445
YLLCORNER 21.636933111
CELLSIZE 0.000278000000000028 
NODATA_value -9999 
0 0 0 0 0 0 0 0 0 0 0 0 0 0 0 0 0 0 0 0 0 0 0 0 0 0 0 0 0 0 0 0 0 0 0 0 0 0 0 0 0 0 0 0 0 0 0 0 0 0 0 0 0 0.0470226765796468 0.695213066020514 0.0501386485910262 -0.000694309761560732 0.591087734340306 8.05599547590954 9.81911634849688 10.2017218908572 11.1624774216713 12.8144136213638 15.7718883032137 19.5863758011411 25.2585346872861 37.1315984090308 54.1706088991474 66.3738649192688 74.5100203102677 80.7012643245219 83.9873843992854 84.7638887315611 84.4092104221192 88.1865940105064 94.6713477459584 98.8773659678739 101.679889360504 104.27214103862 106.437972605108 109.087116319684 110.964909007611 112.779119035231 115.183321494394 117.102227012103 118.32543551457 120.22780878083 122.265120632113 125.151816043901 128.970354823869 131.763737814384 133.585988674608 135.451359020308 137.100217032399 138.231322816156 140.06063221104 141.168813316611 142.849784702115 144.208258289986 146.129004765473 147.458877743556 149.200095578743 151.036899538597 152.192954048254 153.981869939747 155.098333454541 156.102123797258 158.091927649332 159.518981755976 161.19623009548 162.178420134541 163.979426382991 163.675926317095 163.894924112038 166.563920536504 169.524978255466 171.574227223843 173.975859206731 176.231273045654 178.162135681843 179.611918470186 180.985646436327 182.167623726499 183.63492750851 186.779255426572 189.697777651331 193.303035444616 195.296436635605 197.614360966689 199.961494161356 201.450377173029 203.453978937732 205.436341659668 207.182058936655 208.669011069611 211.163637671409 211.947144107046 211.372404297957 210.68037595737 211.088056607708 210.185061119605 210.244929326413 209.975310957183 208.22691300398 206.819469440188 207.47129062428 206.121875444777 202.400305499161 194.794535384924 193.143600566885 193.194656476379 193.293756782706 195.728865688139 202.985542153556 209.769305468255 221.574705484331 223.632031294743 220.356777092556 211.891874861165 201.294217058974 198.109458489441 205.876809076815 203.300787389448 199.942085894 196.322248910366 197.540264137128 205.68152629596 206.771217882888 204.451354732911 200.108281405829 200.219980169791 204.118813805367 208.520196447129 212.320691600968 214.249996556055 212.817570279833 214.329369538142 216.820948827329 221.278478752226 227.636328466466 232.561225423373 234.216313333118 236.439545519432 243.728182901886 252.290786842179 260.406085554356 269.785279413349 274.24524159284 277.404476975039 278.489995759638 279.353182957796 278.862826539981 278.332411071251
0 0 0 0 0 0 0 0 0 0 0 0 0 0 0 0 0 0 0 0 0 0 0 0 0 0 0 0 0 0 0 0 0 0 0 0 0 0 0 0 0 0 0 0 0 0 0 0 0 0 0 0 0 0.00420670278034766 0.288749826371277 3.2794732940982 0.088404784825936 4.64640246216356 9.68416335856865 11.058453526845 11.8362942707851 13.0809095499131 15.0054474221376 18.9221517857291 22.7575658672909 28.8917842946372 41.7742845895204 62.7851133818962 76.4504218823473 83.9291470476429 86.6364215181744 87.4521278277833 87.5632353854147 88.524926673896 92.0289552109444 96.991217722193 99.834122313039 102.42899980353 104.321102006114 107.113744174776 108.971124350436 110.864114028572 113.226037960587 115.695656421116 117.179114056297 119.111291402701 120.478302934949 123.057786851339 125.823034160671 128.944102783684 131.79332955333 134.078827289155 135.445100955191 137.09745329881 138.245144644366 140.059473855771 141.167936032044 142.917182419761 144.762510766426 146.123371766431 147.504986010036 149.429415933742 151.089083748315 152.199347025906 154.116341584154 155.861540339654 157.140470457826 158.552810112024 160.077457818919 161.378627172639 163.190878751984 164.212408440635 165.886601436749 166.774805853704 168.603623979625 170.746224376843 172.534789123775 174.457392539703 176.376367085306 178.89307139495 180.997354246021 182.178068520862 183.533515507966 184.917739160349 187.450525535185 190.517813773971 193.398637300476 196.176656266136 198.167606106384 201.020278197559 202.853292620783 204.714738552551 206.558771680173 208.189724869681 209.760376366321 212.173681676546 213.033924265587 213.040777760988 212.347617128973 212.710337169135 213.351885239377 213.603565331223 214.363122384727 214.840162359983 215.921835360445 217.354099731243 216.498149904254 211.596235517118 206.025414222497 202.92762276664 204.080503454458 200.308913232369 198.216470979808 198.557206936688 202.177519393801 206.409254045596 213.439217655055 215.020589852429 210.685708256334 209.436112181255 213.070779701433 218.974537421635 215.666037469366 213.39539780033 207.236320278775 207.891975043849 213.849879712946 214.914495757319 211.056529288465 205.610434060429 202.382662246192 201.73606625326 203.639561241315 204.927875535549 206.351620646935 207.901191713805 214.600009108073 221.166678525376 227.523906560039 230.686399038498 240.265939943354 247.304491708843 246.099913545484 239.564130441882 243.969925299139 256.715752205775 266.667155046006 271.665062494948 276.927005115243 280.12216995659 280.723510039125 280.989963029149 280.669738947449
0 0 0 0 0 0 0 0 0 0 0 0 0 0 0 0 0 0 0 0 0 0 0 0 0 0 0 0 0 0 0 0 0 0 0 0 0 0 0 0 0 0 0 0 0 0 0 0 0 0 0 0 0 -0.000328271571998769 0.453225882076224 7.1715371802764 8.07605302123863 9.04268496814699 10.7182064736181 11.5208328550521 12.4839057818293 15.2754266446432 18.1374177628873 20.9850538197669 24.2180200049095 30.7606199312138 44.9000639180177 65.6251143586792 79.4892249199033 86.9715259578904 88.1842057256359 89.639605376816 90.6354958854312 92.463266957389 95.343635200488 98.1928589618466 100.569381735015 102.776428795901 105.298047211551 107.178530530523 109.459481017854 111.196366593834 113.409048695275 115.6887507384 117.322755224606 119.183361723884 121.181470488351 123.156227145543 125.146739679699 128.578107532232 131.656311513508 133.665498097239 135.043366176485 136.329380289742 138.028825187782 139.17947962809 140.981907147534 142.13163552769 143.707046413109 145.645497307536 147.560737023676 149.143950818166 150.26361345762 152.153360057822 153.99788373936 155.160668792592 156.761721296807 158.633688414752 160.126409653739 161.381091708713 163.285733051337 165.094040507227 166.195432448859 167.901784553453 169.164744922307 170.681301103059 172.575653812606 174.49655902534 177.228627248132 179.187227104014 181.149156036009 183.221232379496 185.039395286 186.505531226173 188.666139004224 191.577239838121 194.2410921225 196.318839097685 199.124876613103 201.137974662837 203.892231905773 205.690723960804 207.368566573308 208.828822312178 210.818135538179 213.174422543387 214.144978732775 214.939174618099 214.414505113178 214.533341348517 215.701775527423 216.626428465807 217.689874002481 219.584925747596 221.403384982405 222.135321988297 222.510091307777 221.421383065218 220.430301411169 216.582265013989 215.321346805631 211.017248298797 205.381728276009 203.65487405101 202.230567761237 202.315126081342 203.670666154063 205.78595415357 208.674976542183 211.598660105576 215.347643951008 219.182678415192 221.723223468753 222.010539575609 219.82960988765 220.664706751926 224.715571549804 224.601108060195 219.021842590142 213.424628140898 209.442839377764 209.209662387681 206.261734974972 206.273418383065 207.875964566364 209.890233095229 218.375620789278 230.061954947123 238.599938112015 243.046171759301 249.245013107832 256.720845409501 256.383625552527 244.910790657582 243.024621369164 247.033976488022 258.448870739182 265.952867227167 273.910069486876 279.969807866719 281.588165680435 282.656526782898 282.244754303951
0 0 0 0 0 0 0 0 0 0 0 0 0 0 0 0 0 0 0 0 0 0 0 0 0 0 0 0 0 0 0 0 0 0 0 0 0 0 0 0 0 0 0 0 0 0 0 0 0 0 0 0 0 0.00148725821919689 0.34732142826763 5.30491618390827 8.98203457875413 10.0644138582302 11.0656541321385 12.1409458679982 14.1197545485913 16.7144232669308 20.2111783323458 23.0301885047749 26.0175521311238 34.0036991459636 49.0560699509214 69.4569890039494 81.8686407462201 87.4694195262125 89.2584746077296 90.8141910306095 92.7080726603702 94.6551038937543 96.7987307607585 98.6517597224454 100.927177123337 103.447458525281 105.275941875395 107.193405885893 110.032001761897 111.610728961282 113.870477383476 115.742094058183 117.598388726483 119.467243043606 121.32344995283 123.170172217054 125.108671567961 127.990276603705 130.799549982805 132.561383745544 134.095498566812 135.329944086251 137.294184270956 138.888505786101 139.842291956064 140.991106940525 142.760901033088 145.096137006994 147.086190141431 148.365353074473 150.084603279742 151.172318960534 153.036731420147 154.953179991189 156.782193653086 158.643908596169 160.113164411998 161.411224083943 163.342889864466 165.105599369197 166.196479998421 167.911508212284 169.178812237965 170.710964924164 172.593016903957 174.537431648879 177.343446242679 179.236057699846 181.25083819346 183.233784337656 185.13707756023 187.389155122482 189.619591344855 191.503113590162 194.378839040181 196.339384419499 199.125727578543 201.989044342674 204.673879169411 206.514776996079 208.215982244379 209.843245105121 211.282747909039 213.24182044723 215.012746715344 216.080204166559 216.512335981375 216.621643595167 217.396357832708 218.750190450105 220.150373781026 221.135455713916 222.13302451505 223.111809641515 223.937264452005 223.878587947988 222.837792689748 221.030789996452 221.93092306198 220.22099186297 217.599694058254 214.791857267799 207.952049422191 208.973642535866 208.926382089027 211.96519720311 216.755849764644 217.819678300739 220.082810896921 219.715147911301 221.303130887694 225.29731276348 230.172805744861 232.958365732298 233.163996890956 233.822733637903 232.062275536037 225.81841516892 222.464175194368 221.629380814274 216.849416709061 213.648937536026 214.450954723226 213.638000942902 216.014664285516 225.316681603174 237.946550611212 249.583629561826 257.964174794306 261.550383397702 264.44368480992 263.455212256861 258.41394665032 257.491591020576 258.011975392278 260.570272479523 266.698352993162 274.747099191563 281.170196199349 282.340068069665 282.95717933227
0 0 0 0 0 0 0 0 0 0 0 0 0 0 0 0 0 0 0 0 0 0 0 0 0 0 0 0 0 0 0 0 0 0 0 0 0 0 0 0 0 0 0 0 0 0 0 0 0 0 0 0 0 0.0852031605924792 1.64376072407086 6.18692667047272 8.11705770986944 10.0639022584391 11.0993089951926 12.6725819056493 15.6433235427959 18.5160206955147 21.3490355273445 24.3815522197117 29.127096398218 37.929598813659 53.6805028276396 71.0550844527122 84.1699103187997 88.3423942120778 89.9631240511626 91.8348045620332 93.0253583786031 95.0571185615971 97.1150634086105 98.639726515223 101.188895443422 103.452720058238 105.260101047603 107.169318375616 109.508555859786 110.981421639907 112.960246049906 115.188533265767 117.432497132337 119.486260062371 121.344547234747 123.204260474611 125.258486406612 128.006917451561 129.783564766456 131.588946442867 133.355054524045 134.920773277633 136.176837197783 137.098379785616 138.785023759384 139.986625725661 141.673666319025 143.610214321836 145.99545149616 147.3189231425 149.055168659831 149.956977835257 151.142353190424 153.816108410335 155.774355499574 158.100039656629 159.213631240117 161.203797939243 163.218400412543 165.111928665876 166.205554260865 167.931562386585 169.807207708845 171.12753712633 172.644314690451 175.254858777769 177.490054891556 180.133107022064 182.14658984756 184.037386003571 185.859365460253 187.683169311775 190.170137478143 192.617204388752 195.105603418168 197.37485616905 200.208960786221 203.096507906563 205.888086971406 207.171448594487 208.53320437748 210.436761474905 212.315693338326 214.187854014607 215.682395086424 217.033050584241 218.057841065079 218.408994529102 219.154672200033 220.15171451331 221.010531662335 221.13335240639 221.933584034426 222.134620905712 223.076383940916 223.670495355326 223.568665346818 222.836030724633 222.219098537302 223.055980643534 223.152090649081 221.727891378186 220.660372284634 221.744564813924 222.546537603227 221.84514971178 224.372095959105 228.240487885848 231.372071932885 230.464613523042 228.505311616144 226.285741274653 226.960149979085 230.572023420866 232.716245024733 236.295217016653 237.745434038481 236.011371903873 234.896210248173 234.230030335365 229.465177874132 224.398730572992 225.809332606692 221.698020969782 217.643424760827 223.628663432078 234.207865714463 244.010417758993 254.39104870585 261.63984870074 267.182193877295 271.883414444435 272.18282405036 271.737496423704 270.589981014935 268.470557807751 266.371291336294 268.509549465341 277.752938571013 281.152568977288 283.34453548402
0 0 0 0 0 0 0 0 0 0 0 0 0 0 0 0 0 0 0 0 0 0 0 0 0 0 0 0 0 0 0 0 0 0 0 0 0 0 0 0 0 0 0 0 0 0 0 0 0 0 0 0 0 0.221078857916663 3.70301868560111 7.06522122206628 8.12112236834442 9.91299379316283 11.0963024639989 12.6980278085284 16.6248070662613 19.5510615693985 22.4249725652227 25.4004811064982 30.4700708137772 40.9375143662774 57.8968886775091 73.8765195336262 85.1971843335386 88.4739526486858 90.2945826888528 92.1889813157018 94.0813457270764 96.0015131191753 97.1547437056551 99.1524994041306 101.18394050452 103.495981769243 105.251365158886 107.181647383025 109.09100575969 110.482636627643 112.882323450935 114.68660140326 116.871634908786 119.355669501724 121.369039788539 123.216549978268 125.065881559365 127.079572255081 129.525740660547 131.038320181713 131.777514816151 132.960436249418 134.852932661004 136.124267203164 137.727103223906 138.620961580556 139.7276965267 141.369186090797 143.340532622358 146.067799757466 147.038482963774 147.780443768514 148.94210693075 151.955888112376 154.885060224147 157.747435299769 159.133369678282 160.538732354519 163.218400412543 165.212398237103 167.049347093905 168.187840248706 169.832382305893 171.240028603991 173.294724904108 175.620120923015 178.259213761079 180.247274422447 182.093653918849 184.082080310435 186.929427497483 188.733644913529 190.671417833096 193.526685569279 195.412669803958 197.39997662548 200.246646291249 203.102960487738 205.862170137139 207.760058025916 209.598199714691 211.517301398571 213.439403487842 215.242806796342 216.769702257703 218.024180201316 219.129525148888 219.898493114603 220.295454312998 221.094354278856 221.566153313006 221.426612444305 221.134540243833 221.988234484281 222.138000260677 223.057072654468 223.402593855651 223.354729003279 223.382917257283 223.327771936857 222.95113868634 222.068858058555 222.648096145947 225.208343284129 227.239973927249 230.186203021495 231.513591177294 232.430032005188 233.205617730586 233.203569514495 233.103995031161 231.892926397405 229.818157087187 229.609340372524 232.743135557136 236.627109904658 240.226576016895 242.356605287164 243.99816527367 245.047764353821 241.187194727456 236.339652121503 239.631600049983 231.379805987883 223.132772873647 223.899612876167 233.614254451472 246.056670686757 257.214168448684 262.987044758449 268.166290554664 274.805043042099 279.538958121076 280.563537480576 280.225755688659 279.601412234008 277.696973070638 274.640577961513 273.642170870995 279.289826089361 282.649759263204
0 0 0 0 0 0 0 0 0 0 0 0 0 0 0 0 0 0 0 0 0 0 0 0 0 0 0 0 0 0 0 0 0 0 0 0 0 0 0 0 0 0 0 0 0 0 0 0 0 0 0 0 0 0.289260191431382 4.70615182166524 7.06855855531329 8.14108644627372 9.93260798158954 11.1703040819021 13.7191315999519 16.7158099534502 20.6093040655429 23.4343272597487 26.5725025107937 32.6142304052786 43.1786067825465 61.7574069154689 76.0173161938742 86.7560078277935 88.4678770477603 90.2145367625685 91.2869094183458 93.129245798588 95.0100161945526 96.8109444594496 98.6486715638956 100.651624190157 102.543653143957 104.263427316716 106.236794372287 108.132985063356 109.950357156299 111.834767891217 114.414892702029 116.690353239156 118.517656810165 121.437869654476 123.237522891606 125.085011780278 126.93189213844 128.782754068451 129.520317550951 129.52935574834 130.684910363321 132.803784501021 134.114551370533 135.654660874872 136.447244779667 136.625346272714 137.433230992836 137.517291745751 138.781571353548 142.013519858022 144.489728251852 147.623888989247 151.983165544805 154.966649959329 157.748312516609 159.214928974652 161.212494922293 163.19939298689 165.184213280684 166.960257582491 168.221690156404 170.176355351076 171.77751777718 173.685897794529 175.629299314982 178.237602437943 180.270172676789 182.115780262966 184.089860068723 186.948261094874 188.887883306769 191.702078304415 193.644924510547 196.234938549592 198.406449801973 201.164803321459 203.342462391892 205.870448166794 207.715358764676 209.675043514599 212.163305443016 214.260990543081 216.219846134884 217.864096576173 219.14762769738 220.130322868764 220.93652927825 221.315975870246 221.992972078232 221.82965928459 220.968281472285 221.010183912869 221.380576929976 222.133649427804 223.138800262163 224.071977014379 224.508158548847 224.46132671691 224.393377073248 224.01269355889 224.071125752829 225.380699827672 227.588802768838 230.185302590071 232.156702204655 233.175650790178 234.150750047794 235.063510985593 235.268534606344 235.035772373339 234.742459444222 232.979819968596 231.94033838338 232.27027723331 237.83688620176 241.448881042668 244.33374052151 247.016255724847 248.110486143995 247.461340705669 245.72062821993 246.308083701572 240.28642522339 231.324123203766 230.931443941007 231.008701352766 238.173135235335 250.210267254189 260.954122226048 268.084979444167 276.940425063732 281.898563540738 282.962224783985 282.925178225133 283.308851951033 283.24593776151 282.169778311098 280.194637528589 277.907645791883 280.177542070668
0 0 0 0 0 0 0 0 0 0 0 0 0 0 0 0 0 0 0 0 0 0 0 0 0 0 0 0 0 0 0 0 0 0 0 0 0 0 0 0 0 0 0 0 0 0 0 0 0 0 0 0 0.000445145619053065 0.305510516711494 4.8507458596675 7.17707062507351 9.04183499534721 10.0453856093294 11.0792251432058 12.7352079834167 16.0843703913526 19.9004824511991 23.7714482654301 28.7374909532078 35.1316611502448 50.2471873922118 68.1498026794283 79.8360437472647 86.6579127385451 88.3365702749008 89.06801599993 90.0545464082598 91.0136948239445 92.1423291317964 94.7106897444396 98.1568442012613 100.158874805235 101.459382172578 102.522787513236 105.260814110702 107.058278906594 108.919394836391 110.821299836178 113.32041559116 115.344347794939 117.537269222766 120.4683021017 123.165774454593 125.144407983697 126.357193116732 126.870939718329 126.384546338538 126.706333753799 127.714516704031 129.741699375094 131.633494901203 132.993099770147 133.439578177556 133.00158471856 132.628014948727 133.084507460997 138.609914119259 145.554134011569 147.767449357558 150.312786895301 153.088005999583 155.188729269784 157.19912443232 159.18821101232 160.988561451276 162.279101902098 164.240536859047 166.156421840491 168.147067366429 170.270629161619 172.17805849115 173.679576582416 175.646817522086 178.231200436722 180.227869107026 182.08178344182 183.328969783876 186.004778052271 188.904305149268 191.721901684955 193.67501764284 196.257518688832 198.424197398785 201.274911160553 204.016484786667 205.864903174795 207.733428741515 209.703335499093 212.270786019899 214.45784202686 216.308369122467 218.164862906383 219.939180647348 220.811073019738 221.623400894089 221.961219497457 221.600228282009 220.069760735571 219.325317928798 219.409798555394 220.404426621777 221.891223623072 223.133103105981 224.045967977014 224.49834723558 225.076736361178 225.542936720394 225.530341391803 225.67067304231 227.116378107234 229.052234439474 231.198843103313 232.475157700351 233.719216248828 235.150531515756 236.058899244969 236.425040197774 236.786404466819 236.235249771913 235.25764510293 234.755708030603 236.686950860221 241.187808032018 244.613244657017 247.236090647715 249.084473482253 250.835584510332 251.771094009428 252.191768370509 250.342324675642 245.298464480572 240.599619361834 240.814473210217 238.967451398963 237.699571326336 245.318525767076 257.336692973313 265.032415913096 273.888769437212 282.232173281481 284.954033555064 285.800662595943 286.047258447521 286.508244613542 286.87316903005 286.74516797492 284.865909242544 282.709175316984
0 0 0 0 0 0 0 0 0 0 0 0 0 0 0 0 0 0 0 0 0 0 0 0 0 0 0 0 0 0 0 0 0 0 0 0 0 0 0 0 0 0 0 0 0 0 0 0 0 0 0 0 0.0207965895512431 0.705392090269481 6.26467841036764 7.10973641039954 8.95649642560506 9.03015267524201 9.93150562875918 11.6064719735335 14.6894956371908 19.1025616453076 23.9248535311147 31.1464334657375 41.7595491436922 61.0838224392984 72.4678093486956 79.827804490757 85.8223358719821 86.8025650447201 86.9265094551724 86.9532102547095 86.9337429425675 86.9473781395092 88.0935971396646 94.1911835032942 98.4795853101766 99.4536465395874 101.547850427035 104.158592157004 105.225013053975 107.257786874511 109.978698588974 111.882796436499 113.893797085069 116.617765578959 119.829440519691 122.20840587774 124.047692092648 124.193629274382 123.235571360181 122.65689119882 123.800338824629 124.403358329617 125.908916752451 126.769869082066 127.097111084222 126.32780961074 127.058033898636 131.912556702858 137.238519688896 144.258532776038 148.076680357519 149.295102564327 151.114503583532 152.630319090764 154.057393036852 156.485307087969 158.523213794267 160.168121262638 161.8946510341 163.18009599053 165.20395931839 168.029033030616 170.293505452159 172.837399096474 174.625726923766 176.215074517084 178.214236140458 180.210954964075 182.185585665142 184.030228052358 186.094738930252 188.934207936584 191.769844318369 194.279036743738 196.459285017276 198.411204615061 201.301856843629 204.081655461571 205.881925361416 207.738432038168 209.625278895153 211.65632466136 214.236735107831 216.242084940869 218.14289201259 219.153732525154 220.111321882552 220.987590114629 220.822143855932 218.508923517875 214.96860882493 213.645561497427 214.861368822615 217.713562399786 220.333952064196 222.834726496712 223.409476026957 224.140400265177 225.141338105228 226.081780679008 226.633289187018 227.136010272137 228.120990921328 229.887671488664 231.679986478322 232.898974411743 234.156948200237 235.260811489576 236.620454781052 237.96919410186 238.321693553397 238.467095763491 238.548122208179 239.380387840447 242.073619302847 244.395271482121 246.223765641582 248.175014401678 250.556105283761 252.944115882599 254.521716672398 256.218601712509 255.388300314789 250.703674526406 247.691159915147 251.180430870316 250.082080188241 245.268191249955 247.400959470044 260.148290575025 266.461615895586 272.742545482538 280.460502166867 284.263428481425 286.698425866662 288.138757359979 289.295472953731 291.272730983388 292.48967701503 292.942709299424 291.704291889255
0 0 0 0 0 0 0 0 0 0 0 0 0 0 0 0 0 0 0 0 0 0 0 0 0 0 0 0 0 0 0 0 0 0 0 0 0 0 0 0 0 0 0 0 0 0 0 0 0 0 0 0 0.0115934319899234 0.334848588184959 2.77782216397661 6.16238601262531 6.65225542689751 7.7102867696424 8.86261937365134 10.8736359380856 15.4033898011331 20.5475349993176 25.4374302942752 31.1336159209729 45.7416856014103 59.522102540091 64.4550896402046 67.9480777727339 73.6300158969096 79.3419482067346 84.0758451788317 84.4638392294995 82.3261148410386 78.772647065667 78.8902720110926 81.6978462168605 86.3224784944218 93.2753614047868 99.6815015251623 102.109543761926 103.206271798216 105.157266295205 107.976326047335 109.892968521179 112.759551453694 115.644931471759 118.635948600877 121.160888811457 122.096498340961 121.131348607848 119.332577593006 117.479873033752 117.590553429585 119.078575153016 120.028169995406 119.063506466251 120.467689653188 123.265425192216 128.561710197552 134.761568982318 139.475678733591 143.691616254105 146.224302317188 147.598384627366 148.527105422932 149.589895039515 151.459846825307 154.390782013503 156.981736844019 158.902471499127 160.284543100438 162.308226361702 164.848877726693 167.0705522973 170.094936983942 172.136535775314 173.628810817831 175.534569471337 177.42886800123 179.367713835422 182.18420518131 184.172300692344 187.052746463914 189.920897952972 191.831020686724 194.620234052271 196.470592385125 198.440997163895 201.140766162678 203.030267006157 204.940729525597 207.242742040295 209.245227801271 211.295800911636 213.320771671281 215.301808543449 217.109822438105 218.029142874696 218.042697109498 218.229120268917 215.78115582227 211.416369849306 207.799898317524 206.922977054037 210.71537208774 215.26523482571 219.884339404367 221.27186008754 222.662932314628 224.140492728934 225.148150242575 226.180794871575 227.142800269764 228.137544935283 229.11045107968 230.224945466885 231.580591087693 232.526086442647 234.23684857562 235.797163941585 237.13969833205 238.152613443449 239.169032454015 240.093693531192 240.66404838614 241.921667846652 243.77318747278 245.36746090637 247.2481365446 249.139694753702 251.139366794587 253.596062566431 255.842384648846 257.398627153861 258.173697130752 257.543759173284 257.540604874084 258.613051483391 260.165093954201 258.572781802038 256.484137430833 260.635024393101 267.975163044644 275.347496793963 281.362329429646 284.107236251872 285.878947966496 288.392989267672 290.894956052513 292.903604718627 293.81022718048 295.102632277 294.218763238779
0 0 0 0 0 0 0 0 0 0 0 0 0 0 0 0 0 0 0 0 0 0 0 0 0 0 0 0 0 0 0 0 0 0 0 0 0 0 0 0 0 0 0 0 0 0 0 0 0 0 0 0 0 0 0 0 0.0829028686690107 1.63871749756834 7.03193606416077 8.065671484946 13.7793578421354 23.9030902135093 40.327382641381 46.391300922503 42.1482617384745 44.6358172552782 47.0227798458035 49.1640006683252 57.010313099404 66.6953285387239 75.7991213869592 77.6143112416721 73.2694672689811 71.3057670715344 72.376824305747 74.3485866118149 77.4985073766578 81.7464221297939 87.6960898292808 99.0451850907078 101.008411924725 103.053983203193 105.993233789581 108.741928726075 110.743660374362 113.704791316347 116.557424607263 118.143963770449 117.999789474055 116.978493274888 114.248800316326 110.822135450141 109.290185149376 111.250245305472 116.990636076171 122.735694709933 123.918169937459 126.782650040781 131.631206134372 135.665091403764 139.49755430133 141.924345555505 143.501830966769 144.535150033254 145.574966448377 147.394515189798 148.449590585314 151.150652592656 154.119739478251 156.065435488948 158.835627545584 160.895895155265 163.24169196773 166.093184928145 168.9079741025 170.979575569679 172.456029513343 173.996159684508 176.046612086044 178.485895329882 181.964628790806 184.171477600224 187.065365945519 189.889115166706 191.772223400751 194.018483828505 195.328478701836 197.406613792835 200.098963394264 202.074331723153 204.193467462545 206.771143451298 208.187160590714 210.236809914576 212.265088640575 214.109665470171 214.943681837953 214.955124078919 214.729383677252 211.720019293901 205.49922935782 201.429749729507 195.058577905865 197.921887754328 207.136411446223 214.47287148633 220.826580170664 221.64514192851 222.675236479335 224.151283999652 225.180757574299 226.212090899056 227.145279291593 228.161029433423 229.253986526701 230.825739097292 232.042151302423 233.164047979541 234.395349800343 236.148400280278 237.152387796346 238.283395329893 239.953986568101 241.115712646188 241.988965268204 243.385767678193 244.462244725057 246.440667905781 248.729324785941 250.667692609808 252.618131894532 254.586597615741 256.612609567765 258.78459398856 260.209985103752 260.337273941845 260.700263150087 262.56943974893 264.447962985952 266.40156683802 267.063010399825 268.081845587478 269.353891888001 274.193188021344 279.305235044953 282.385568746026 285.912327439949 288.448804362503 291.265233707972 293.241526725374 294.495784025917 295.288189775115 295.460796730285
0 0 0 0 0 0 0 0 0 0 0 0 0 0 0 0 0 0 0 0 0 0 0 0 0 0 0 0 0 0 0 0 0 0 0 0 0 0 0 0 0 0 0 0 0 0 0 0 0 0 0 0 0 0 0 0 0 0 0.064056735957079 1.3324546638962 7.2189834031927 17.6125087127198 41.6300260388308 56.9574562886263 63.1995724345215 62.4994088440436 67.5945054439473 69.9109935044654 66.6030231978969 62.3784690305467 61.7222978286241 67.3198922157874 75.7146655116299 86.3486327876639 90.8731646872578 90.0380814529115 87.0016736498526 81.6897206486502 79.8511531405289 85.0915382165552 93.9603164125994 99.7982987664344 105.567812657373 106.747373273172 109.676903230263 112.166650431534 114.131523527329 114.974774804078 113.906374469891 112.898647926196 110.831662693321 106.97505629079 110.788818316643 114.099621230624 118.932826791523 122.455380712034 125.578618206626 129.187762822213 132.016939186892 134.881022674205 136.889694105515 138.355923487137 139.384528519068 140.581773127412 142.341718797347 142.645422494928 143.825370627894 147.310681499862 150.819269913837 152.856687830186 155.036481381967 157.919111557892 161.297784527707 164.147313673789 166.999238065173 169.397773021107 170.716307958937 171.917567557353 174.194821457919 177.566983540623 181.319838636857 184.191737702974 186.955173502464 189.004636989971 190.476237214859 192.423527071516 194.400775135894 196.469967802083 199.049561568894 201.094268555083 203.147423494936 205.683040970455 207.218976906899 209.167044350838 211.006685031389 211.941484824867 212.726637861803 211.868253465983 211.861583602299 207.762602085822 196.219072426486 191.417746163746 193.430725697103 198.928746769254 208.694734506163 219.01495831471 221.837979285474 222.692870162294 223.556567695596 224.426621568547 225.311616770207 226.223028776176 227.249020623393 228.887587831308 229.923656059453 230.846724894655 232.146000275779 233.178230500521 234.477700986289 236.148134410905 237.282769898279 239.060859995761 240.103653884157 241.246482269591 242.721612048161 243.99652508741 245.508864886606 247.449541004525 249.400440392537 251.812980367524 254.126109716433 255.865625742402 257.12540286307 259.780876370824 261.539435896581 263.095175648532 263.762552216192 265.604253905917 267.460843062031 269.355466975627 270.310819417495 271.556525684899 272.758982859352 275.070225454488 278.604400376564 282.518164764231 285.895952038417 288.432521375402 291.206543316844 292.942353815745 294.481337858808 295.090378309301 294.660586271054
0 0 0 0 0 0 0 0 0 0 0 0 0 0 0 0 0 0 0 0 0 0 0 0 0 0 0 0 0 0 0 0 0 0 0 0 0 0 0 0 0 0 0 0 0 0 0 0 0 0 0 0 0 0 0 0 0 0 0 0.0223493578674055 0.619839633005689 5.85739857922613 25.1771095728672 54.2081110337075 71.5649534547968 76.8359551720925 79.9651071793616 84.4082890041256 85.2253741320307 84.0312093206435 83.3809322729488 84.403006783249 89.506968741479 94.8449095826542 97.3835557308124 98.2965252032154 97.5721286967115 92.0165007360888 86.7719720640619 83.3165325706379 83.131599987224 86.5086190114928 100.110107854715 102.967515957706 106.580985701801 109.182256273467 110.74889423562 111.576003228409 109.640165550954 108.559724529088 105.183707258981 104.076840927757 110.885220234765 113.712013202536 116.312072873761 118.667342979242 122.469240663716 126.128893096583 128.40320765182 130.815086429125 132.30330109991 132.311793160204 134.092534784932 136.031155754931 135.69604435582 135.796206599031 136.10857309698 138.893021984831 146.052403213384 148.672519276078 151.171274597083 156.105299557635 159.760065347323 162.573860943669 164.899662281363 166.803978470636 167.508052305715 169.180201876537 172.789543078774 176.366121501602 181.282911855613 183.591994717835 184.641432212883 186.444295339298 188.446672114715 191.371176549782 193.469911836595 195.380018675763 197.999195645343 200.09283165998 201.981544891949 203.636609226687 206.063347603472 207.824862066523 208.051320492984 208.845942770064 209.762930793352 209.877403676024 209.913099726989 201.945720277801 189.238753913511 191.864379723069 204.531883552366 217.547530148378 221.019718095058 221.880202469013 221.800801466937 222.106001253397 223.127451014663 224.124442750386 225.12033901398 226.129092524416 227.29198322338 229.080350078938 229.922136298777 230.910334698363 232.147466933126 233.183019655239 234.456219009828 236.144268841409 237.246328236673 239.081285570211 240.273366677492 241.870660931896 243.03389938284 244.27706769959 246.063532690347 248.057245597699 250.321516168193 252.352457286095 255.101447485738 256.578276657677 258.021895948734 260.067915992256 262.476505432863 264.17334380462 265.363712693585 267.202746231143 268.576053072486 270.27421449549 271.806136128895 273.205913417812 274.47191631928 276.714563101686 279.470870112438 282.386463402025 285.086915035784 288.110347383369 290.132972854952 292.152872503179 293.195861376665 292.920202935048 292.747971221956
0 0 0 0 0 0 0 0 0 0 0 0 0 0 0 0 0 0 0 0 0 0 0 0 0 0 0 0 0 0 0 0 0 0 0 0 0 0 0 0 0 0 0 0 0 0 0 0 0 0 0 0 0 0 0 0 0 0 0 0.00101367417798954 0.0829943706598931 1.16431880080791 4.76955233591668 25.9113007608614 59.2422504042826 75.311609660225 82.4733505090483 85.2516813010804 88.6664684718502 89.1061004819737 90.9811246666616 93.345276959006 95.8230298286469 98.5127953221079 100.301410483541 100.912585541131 101.307415194461 98.8357645407981 95.8619479777106 91.6511053481263 87.7087808614823 84.7374896445504 91.6845907557427 100.158770792795 101.309762736432 97.4733854974714 97.0033437927796 100.404454471484 100.560825401601 100.578073864502 99.2268760485512 101.762747891202 107.676930531282 109.869016827807 109.888891020458 110.110079294888 111.878308542447 118.214577500578 119.938622644709 114.70174094878 112.756924150257 116.805409679013 121.059723600574 121.912099118852 121.699417092755 121.591451789764 121.854574822888 126.353494518026 136.727458816959 142.858938320663 149.41190598108 154.750072746213 159.342348905227 162.182483171609 163.897957733796 164.345653678872 164.472775015053 165.526727850075 168.574585855823 172.769960846806 177.189584734429 178.986230350449 180.539026852263 182.764179275097 186.496471833608 189.36490329121 192.263738037479 194.995930858015 197.24767315512 198.932747801408 199.750513403362 201.491596477332 203.1849216733 204.590603006984 205.465361600854 206.032391974717 207.84202906218 207.073894509123 202.178692219141 191.88765828052 183.393961866999 195.538556509273 208.96040267455 217.437434238011 215.841346583207 218.591599952809 219.812092034521 220.739919817325 222.608133454218 223.497835424838 224.374907492744 225.413613326812 227.108309036566 228.070409784439 229.244286305365 230.881691352657 232.202688003997 233.622296192895 235.151920220237 236.40807169119 238.149200281763 239.275477369511 240.996132499941 242.125692129862 243.556040069813 244.620865936315 246.510359424637 248.492526621745 251.06188276506 253.241938319925 255.055164917866 256.935794105641 258.79528340519 260.64739660391 262.572482137096 264.521148285928 266.372972902453 268.159454909169 269.315548642285 271.108406595416 272.854755770436 274.216647141378 275.585417018769 277.604260165199 279.7914469652 282.414364483632 284.902432203669 286.89005053476 288.207215521363 290.139462690559 290.078545300028 288.124764784376 286.716058571441
0 0 0 0 0 0 0 0 0 0 0 0 0 0 0 0 0 0 0 0 0 0 0 0 0 0 0 0 0 0 0 0 0 0 0 0 0 0 0 0 0 0 0 0 0 0 0 0 0 0 0 0 0 0 0 0 0 0 0 0.0397758922233304 0.610476816667369 1 1.031013605218 2.01173075137649 10.9725350559896 32.4296329034087 58.3906902213729 74.2920029625568 84.950542406383 87.9033741533228 91.6610886604367 95.2102037313951 98.2880905056845 100.162141705704 102.035488329582 102.981893967395 103.988443004188 102.993190145031 101.066836379397 99.5913829606045 98.1515753948902 91.1927317480546 86.9188606212205 91.1050068871153 94.630046305105 92.1554497360392 92.2424761478138 93.4398064504053 95.1501108221279 96.3678670832945 97.4638286185616 98.291269365594 100.32062933106 101.33953964713 102.449153436798 104.322171501967 105.308181890005 106.158851690115 106.590743376951 110.710832393907 109.885819823857 109.796939886437 112.418205524033 114.491051668169 117.440060600805 120.726968207444 120.880372973209 121.287214928168 125.390399243482 137.629715385607 148.041874317104 151.271978730579 157.051598179304 160.276205832141 161.213954033239 161.3768015473 160.491156006656 158.905520991272 163.158070321142 168.308313542595 171.544026193394 172.66306509465 173.354574060957 180.62532029764 185.94859956555 188.779407257418 191.703347411569 194.763875548145 195.583741894263 196.462991546431 196.552321331024 197.504647014717 198.394752488769 199.324027942091 200.320351084703 201.634208105432 202.827596708584 200.30890218653 192.658952917975 183.87993871228 182.77798174206 198.22620389058 208.05410858478 211.369642717885 207.244316542139 208.027606590483 211.920924326852 217.112942450599 220.759550510083 222.486970495276 223.498074925674 225.157203344582 226.142142660686 227.286373487657 229.242516358632 230.898763459902 232.136526089089 233.194712887086 234.603520645698 236.482319326296 238.149200281763 239.27609646137 241.018430461538 242.250901212012 243.835085707863 245.732965015784 247.588236137479 249.400191495696 251.43298440946 254.071206662791 256.056149023698 257.332376407508 259.408560290441 261.784730206542 263.572051165595 265.435791037054 266.859144665408 268.261870401635 270.077039623812 271.347102607453 273.241562107066 274.709145256215 276.515380259508 278.366624938736 280.295856194997 282.361930564618 284.256637110424 284.681573843982 284.504050529899 284.691618787954 283.517661644409 281.454781723778 279.899831577288
0 0 0 0 0 0 0 0 0 0 0 0 0 0 0 0 0 0 0 0 0 0 0 0 0 0 0 0 0 0 0 0 0 0 0 0 0 0 0 0 0 0 0 0 0 0 0 0 0 0 0 0 0 0 0 0 0 0 0.00184811950274163 0.0938691327849114 0.998496053364314 0.977856046388161 0.903554063501192 0.023795553271401 0.582237947107915 4.52915221157305 15.6563373319492 39.3630542166901 71.6602392602138 84.2767454090808 89.2512015869421 93.2833874342001 98.2779442089614 101.142019558855 103.174178997643 104.999542866394 106.397844563854 106.424185032708 105.017981213044 103.681254113557 102.141494055106 99.642888062419 96.3902002223903 94.6505272743192 94.4825727975844 93.5711808588406 95.5597856373735 101.27527396332 102.446336822168 104.811160817885 111.339839246089 110.718635281161 110.07186190282 112.52780425565 113.657374907908 112.677594077988 111.886823579506 112.117637142629 114.11146182401 120.023941446403 119.206929844168 113.029258025775 114.590502019346 120.877514419344 129.514911716401 130.91687671478 129.631597449774 124.517755648112 123.108437641674 129.137047009164 136.623689097232 139.345662139204 145.009452806722 153.858256979072 157.290031655255 158.075019790053 157.413517707313 156.069483985169 159.94988857865 162.195970942114 164.28931378343 166.897010865075 170.144846078755 179.647136385098 185.891126659132 187.880784672646 189.986783325373 191.851461068906 193.382157235262 192.984433754659 193.941701276063 194.415470508065 194.475087969467 194.915952811763 195.468841054867 196.027333075416 195.881743671106 194.484097347243 186.771589615817 179.715060384441 183.946587029697 199.592393287671 206.781610684553 200.312786481566 201.008020807587 208.60981324873 212.542537917063 217.743126118496 220.738991532545 222.125811040151 223.144591224351 224.403267636704 226.096725869171 227.256729984686 229.065755971295 230.836352434179 231.774237248556 233.191024371333 234.551077878972 236.296916743223 238.149866373361 239.26853950552 241.082831115431 242.925102863558 244.388128457367 246.759478741054 248.658639010109 250.558663154416 253.19233065316 255.014241187014 256.283188669316 257.95595357961 259.806175832794 261.656446804382 263.528789543152 265.457624275841 267.163416204024 268.294554672162 270.125487813458 272.010380223991 273.547450871613 274.712551070376 276.411924096665 277.826355862192 279.252971760621 280.690889788367 282.052969040958 280.649604743776 276.416359388586 273.957266665997 273.147475562957 270.185716631493 273.051154067182
0 0 0 0 0 0 0 0 0 0 0 0 0 0 0 0 0 0 0 0 0 0 0 0 0 0 0 0 0 0 0 0 0 0 0 0 0 0 0 0 0 0 0 0 0 0 0 0 0 0 0 0 0 0 0 0 0 0 0.0650594598860639 0.963044407914018 0.918656603621298 0.192065220368705 0 0 -0.00368650450009864 0.0571351470144598 1.66688653445741 5.98397910980423 24.2125293816483 53.2905805612146 75.2266440508422 85.745469383345 93.5398772014435 101.152854618632 104.052285151899 105.847208053184 107.95248849745 109.260606672283 108.395067368049 107.416591230158 106.824389387338 105.864960916588 104.53015087171 105.30682478913 104.643073022349 102.555224434915 99.0749804979427 105.580033979868 111.30881969311 112.643443551428 115.321870382335 117.549570150582 120.901426391558 123.360877552962 122.571162322844 125.097887697603 129.992504567205 133.085765908296 132.798157438727 135.231911589606 135.332905529971 131.946877109103 129.035352643086 133.6432235854 144.648689839687 144.936753875122 142.275691346698 133.357555262368 128.305372709872 127.084014504868 126.78891948346 129.896585673885 134.608584277006 142.914294029975 147.371455340604 149.468801230705 147.7549650462 148.092251617174 152.594768124761 156.164991983537 159.544097407307 167.15958454365 173.060610130391 179.746753265771 184.061085438096 185.034874276442 185.786252999426 187.5134333772 188.253554897198 188.489104282804 189.812965428784 190.304237094177 189.970499603334 189.890155123404 190.410933295472 190.766418296469 190.534921015859 188.198782725774 182.405553689547 176.718343327137 181.855991494134 193.475705163719 192.873294958618 188.621828374351 195.771439586674 205.333204346252 209.928632112406 215.517117748329 219.71125317052 221.546744932113 222.509031574801 224.15445813497 225.360800993473 227.266153114843 229.000215581515 230.017995623239 231.123219513011 232.748877742347 234.629201635592 236.296741227905 238.150475258803 239.270999168122 241.089662297884 242.953474183446 244.825351956495 246.861774009112 249.64424219242 251.527630866437 253.482797215536 256.0485586698 257.227723077122 258.975713899425 260.894682199441 262.67582522597 264.173508121743 265.470676321118 267.219630863729 268.31936033322 270.133749932605 271.980781338284 273.274634846419 274.15369318229 275.206760256489 275.524240004885 275.11125096017 269.588497515631 270.937623752014 273.068673434625 265.624780271838 259.812099858945 258.474060169428 263.283930604717 272.396039279146
0 0 0 0 0 0 0 0 0 0 0 0 0 0 0 0 0 0 0 0 0 0 0 0 0 0 0 0 0 0 0 0 0 0 0 0 0 0 0 0 0 0 0 0 0 0 0 0 0 0 0 0 0 0 0 0 3.45366905296801e-05 0.00243888193336391 0.0291998706933308 0.0291998706933308 0.0279757188966785 0.0107041582857918 0 0 0 0 0.0119601421112739 0.306600832841062 2.5334691460512 9.57418897620092 32.7873516748011 60.6812905460991 80.7558134021557 93.5547603081068 103.513555930098 105.344349944304 108.750450181491 110.094745922695 110.842274902765 110.523155967508 110.585024659806 110.654100595552 111.623767560356 111.615974419638 111.503695947198 109.691142721772 104.759894324925 103.080529684677 109.650898472576 111.701277508129 113.701674955629 116.34441705906 120.30498572605 124.472827534597 127.721702864978 131.32821781299 133.722840932064 136.753916826394 139.648558141932 138.924626558107 138.892148465261 140.907864111881 143.162089176938 147.453929558591 150.862352907555 149.773848481494 148.005672013626 146.009122983948 139.814367171391 141.738188793033 135.477670963179 130.835291999722 130.429803091076 132.23512390286 133.776212487263 140.011031360861 146.629175971825 151.296961143264 156.880113171775 161.048096459332 168.336770143416 173.720686309172 174.351906568658 176.615731185843 179.24894614826 180.503377998894 180.558213079501 181.796979940178 182.52825004473 182.986577476268 183.740215696958 185.214237864976 185.478184709195 184.58025429501 181.083108722429 177.298351006334 177.774340916643 178.638886294456 174.131624830906 171.149674354715 176.448542133811 184.798918419826 182.997021570448 197.676650233687 211.595546683213 211.777353307986 210.216402023673 213.467159074366 218.552158095491 221.15313469635 222.596498476919 224.291762154149 226.116290277765 227.083399964091 227.766435171003 228.157355781474 230.806305004133 232.697918283346 234.272028030074 236.130587700763 237.359840056576 239.232455559902 241.0953839891 243.006001507436 244.887754629968 246.704388857108 248.732550163045 251.657101352412 254.256598678532 256.259019062301 258.039841229179 258.960641079771 260.311657785932 262.201285757799 263.685638290536 265.438197394615 267.409312405266 269.24810989253 271.012357442182 272.578673665438 272.410147404216 272.267638837215 272.700305690902 272.689852084338 270.91198245591 258.046878711323 261.293763840671 265.48933563145 256.796049907874 247.766388283094 251.103894452989 260.836895245042 268.889315842097
0 0 0 0 0 0 0 0 0 0 0 0 0 0 0 0 0 0 0 0 0 0 0 0 0 0 0 0 0 0 0 0 0 0 0 0 0 0 0 0 0 0 0 0 0 0 0 0 0 0 0 0 0 0 0 9.60860351916591e-05 0.00466490289051021 0.117256785389197 1.06106683863436 1.08454574798558 1.02541816513455 0.411656489829034 0 0 0 0 0 0 0.109676670460226 2.05148163238009 10.6315162374343 28.5307516921607 55.7611579489333 78.4866943948263 92.5444040102997 101.304132176391 107.576196392337 110.763612497031 111.059012681181 112.054938070863 113.266607523165 114.717551361412 115.552312295004 115.976552700406 115.273551348744 114.163999987239 111.364103812089 107.669102515283 106.439714076075 107.136085322082 109.016935137623 110.491670085425 114.277019037939 118.590604261527 122.839292399352 124.283256841382 126.926151583309 130.856509079167 135.570953931109 136.725057672497 137.889725043892 141.686652119913 144.690609860437 147.517947953736 149.685282503876 148.850948159503 149.040685270392 150.1709413436 150.18134135072 149.522556394884 147.475886912694 140.524977041001 132.883249568427 132.655200468488 138.860219180818 150.801837807605 158.804271444283 161.708135146727 164.570978586382 167.308995861465 170.014480752478 170.105856281559 170.099635560555 170.491779868341 172.702130064885 174.143626645747 173.51634701043 174.204370686399 172.350819414909 171.083980659103 173.176498725561 175.941324335384 176.744824731083 173.567942086023 169.740966704302 167.314770737358 166.884588775399 167.751859930902 168.296686598482 169.374990963309 171.007711708487 177.985995365328 191.530564057176 203.423457314532 209.801177337725 211.389430093601 211.746604549333 212.136391875682 214.83055508128 219.867925419324 223.48344830073 224.373079074995 225.120527984958 225.808542766846 225.630383572727 226.060788170101 229.446485992954 232.022060990021 233.545990347388 235.434214340797 237.055778991238 238.226650227816 240.15252120186 242.004868814443 243.247095877975 244.924553298569 247.806498222777 250.504825162131 252.49708966784 255.229409213522 256.858589002669 257.170764409688 258.979778797713 261.219916281598 262.632527682498 264.381841477703 266.420205593463 268.633869266405 271.929055212125 272.498533226648 269.279791261388 268.72636302763 268.97388343117 267.293847847165 260.677941075205 247.516688846263 247.657688386387 251.930602439092 241.907150433884 234.372105920557 240.892621804943 255.013354976147 260.631885508694
0 0 0 0 0 0 0 0 0 0 0 0 0 0 0 0 0 0 0 0 0 0 0 0 0 0 0 0 0 0 0 0 0 0 0 0 0 0 0 0 0 0 0 0 0 0 0 0 0 0 0 0 0 0 0.00198351496347084 0.0344755686701925 0.157006442057619 1.27172027376755 3.09854730163513 3.88297996690113 3.28966159344228 1.97598633836654 0.0742160776015222 -0.00207637664009874 0 0 0 0 0 0.376598967106682 5.60656306999724 14.8658866930057 30.6407535190922 56.0663080023554 78.0200540610175 89.1736329593118 101.033182322444 107.679705296849 110.161094594252 110.507231068856 111.092276232707 112.379865774935 112.847724552926 115.165313907371 118.639461200569 117.76535455139 116.695901932804 114.607770396596 114.273621422928 114.152165760121 113.305859041234 115.25556290227 119.276541872165 122.959366652584 122.949749643554 123.249441274841 127.50482105528 129.429560054186 132.299450987244 135.001784202482 136.510321305152 139.695207042698 143.898927747829 146.186681855305 147.082454005133 148.251827614421 150.402724725894 152.968169462898 153.213933836231 152.654476725481 151.074513033173 147.888395107127 139.269868256883 133.767403670377 137.625532962746 144.793631452319 152.555732141083 157.802499151115 158.079640090883 157.039212761386 159.497828599969 163.257838949243 164.869791491699 164.341500842003 165.973091026664 167.981830621385 166.648532051401 166.270582068907 165.899782180562 164.292801285621 164.374814082974 164.144297405992 164.949426449018 165.474780828428 164.892008442153 165.676706144304 168.115004768111 169.581621707536 174.159138578791 177.81465654181 180.070158329278 193.51643173317 200.026546812899 203.633708733105 203.758672480566 203.873442691211 202.405796805782 201.070241918581 205.693485028808 213.674299787499 217.421568230666 218.066829944292 220.820287711865 222.086137496105 223.448148340618 223.618592774317 226.763550557598 230.67654415266 233.049917839551 234.532261203717 236.45743742686 238.303364650424 240.320789757746 243.108236549397 244.946985300932 246.445044950771 247.857956979322 249.669871384201 251.532540801621 253.391889407376 255.154413533719 256.426468848677 258.875651116542 260.538056360956 261.086077537386 262.145958913586 263.170024613568 264.385809396781 266.753411197667 265.669272996192 259.95556206997 257.946396282549 259.343460454266 253.261815949474 249.13217792736 239.285913062407 234.173654047177 234.411231063138 231.11547021152 224.772438730515 235.028493429463 241.984030747721 247.050953105239
0 0 0 0 0 0 0 0 0 0 0 0 0 0 0 0 0 0 0 0 0 0 0 0 0 0 0 0 0 0 0 0 0 0 0 0 0 0 0 0 0 0 0 0 0 0 0 0 0 0 0 0 0 0.00121642978899166 0.0843296441134722 1.05193496532936 1.46518457124647 3.31215913480475 5.11578089738133 5.96135559842444 6.08365931648956 5.39479435943886 2.50657003962181 0.0193037879593087 0.0252415609177927 0 0 0 0 0.0776986405655199 1.26876483960477 5.26676258370168 18.0480931025432 33.3355665271579 63.3528834370537 81.3528296972509 94.664875380209 103.615172894808 106.823859485309 109.200400063459 110.083228029731 110.145087921542 111.796003559458 113.784836037204 118.90722485196 121.085683889727 121.739297272738 121.513432771135 120.236696380369 120.342287514926 120.335559243116 120.890538483921 124.519444125388 129.839070711966 132.59987662722 133.791124375627 135.09541725792 135.492510832683 135.098862770979 134.495190478965 134.408855168315 137.74179247323 141.325057951861 144.156834379984 146.25939420252 148.371662719707 151.233552418136 153.995945068006 155.323298566084 156.29705113633 155.863591841349 153.913619096919 148.946472208222 144.685987094183 141.606271126337 138.704911197473 142.291570129612 144.613804078974 144.988793138707 146.280678783979 149.142114521308 156.286959764279 159.574796160608 158.790778881475 157.944233633342 158.110995350447 158.560961524977 159.123408138321 159.130662843019 159.220266589155 159.272934175836 160.325403698076 162.145860565647 163.250362075128 165.053375281229 170.942791739312 179.539297409698 181.051668846711 190.908830644873 195.743935146591 199.380304245688 198.80245903565 199.615122338595 197.884541203639 190.34785210895 187.303022223811 188.215315521723 189.873861405811 193.832186978152 195.112325398428 195.202997764308 199.308200803534 204.961960033195 209.104374033516 214.283924663461 217.800107875631 222.644496850461 228.284396814791 232.657087570291 234.388168667429 236.042834360526 238.035589934374 240.302487158336 243.031304364354 245.076172006235 247.919537944045 249.825298489781 251.861738687166 253.725227467721 255.592677458158 257.270518418626 257.539308563594 256.973970207034 258.477000794292 258.174863806556 258.700855867057 258.179841128527 255.908603674144 252.333428000955 245.687958222808 248.429769925555 244.13693515371 243.314583926287 237.515661865375 236.428446710115 226.504713800469 218.359480681294 216.449152699472 216.165861499271 217.898537827849 224.068754102859 230.496858082202 237.344832273155
0 0 0 0 0 0 0 0 0 0 0 0 0 0 0 0 0 0 0 0 0 0 0 0 0 0 0 0 0 0 0 0 0 0 0 0 0 0 0 0 0 0 0 0 0 0 0 0 0 0 0 0 0.000284176037155534 0.0445718234301022 0.724633114764134 2.1137175118399 3.26361867786399 4.42071682565121 6.26626200275211 7.24660183088644 7.97579620716063 7.11146388429567 5.54375511919509 2.78184806440006 0.893601079646996 0.0368427529853311 0.00264833238991626 0 0 0.0764001443583508 1 1.28845012290416 5.56707435841115 17.7057655792343 42.929973012738 70.894608894059 86.6499195191505 100.621929372509 103.649190406985 104.733605919052 107.495062513098 110.318451976698 113.175683807909 116.063127859188 118.965652254594 121.819442444343 123.497271894229 124.266486745109 124.724656560589 124.754749935047 124.755279863099 125.502759615118 128.321312267476 133.537462368576 135.384695637434 136.255351814971 136.62304982893 137.000640878883 136.509580362677 136.122148071729 136.717827248174 138.966589895239 141.17168226239 143.846104499298 145.462361160793 147.521589823489 151.266121897108 154.159539829965 156.926433969418 158.323616298388 159.243084924375 159.091265017219 156.875244267432 153.239038349532 149.900589012047 144.535966025443 141.61269697061 144.202807095166 146.903202731785 148.002272245826 147.244840219357 147.557654337518 150.983953969329 152.897950488443 153.282705056421 155.213073669027 155.611500828339 157.080733295198 159.761170799082 162.163092418064 162.353944556511 163.330183192611 165.057310120664 166.372515090545 169.702793481899 180.761753144617 196.272749374146 197.042500261962 198.148470450792 200.462836292913 199.25487795763 196.827441117374 196.535890006245 193.775985350749 181.68819565294 179.641695005665 182.425039175765 187.138635088984 189.815742176361 190.871471426099 193.49837078215 195.710320871703 197.884504469684 200.382779269534 203.237630089582 207.747302405019 216.115141548396 225.109295351401 230.997810473481 232.891609191741 234.976163146455 237.007128279484 239.275715311662 242.121611958106 244.802676914381 246.967668466805 249.894038715478 252.648675168241 254.766223126902 257.295121320296 257.096319106678 249.205029515462 244.924357216498 246.812298299376 250.901749229226 252.860727149274 248.444487346417 239.300413702542 239.526411611747 232.449498052474 234.481353446384 228.135649056416 223.074948982456 221.336956460601 216.781604185829 209.987569916537 206.376517407051 210.632688735997 217.292254417002 225.239051513051 233.241000896295 240.836134799118 252.448906540269
0 0 0 0 0 0 0 0 0 0 0 0 0 0 0 0 0 0 0 0 0 0 0 0 0 0 0 0 0 0 0 0 0 0 0 0 0 0 0 0 0 0 0 0 0 0 0 0 0 0 0 0.000575528638968351 0.0192644138040394 0.254918160693976 1.6403161727264 3.30706630816168 4.60534463635377 6.28796698072447 8.17277973065539 9.02855767089905 9.04055471126441 8.92066391353779 7.52812869223175 5.91980905208146 3.8009392353641 1.30060127628609 0.247639362843396 0.00285109321756135 0 0.0749125037765158 0.98203151939748 1.09376427160904 2.44172792726448 5.92206986858536 16.2583992417342 46.6662962003016 70.5959655951455 87.4009166190346 99.0079884928641 102.765937679035 106.515984630097 109.379100685311 112.409900499105 116.143652022364 119.596539604819 122.063023223322 124.041997388642 125.443366292078 126.956403072566 127.825612184577 128.866338246666 130.508265793285 132.329071561863 134.758123087872 136.113031217345 137.126966717944 138.085750237338 138.571358500958 138.590752419184 138.699495639478 139.800307745415 142.50206424067 145.236004080171 146.141079009553 146.700113655619 148.15250476928 152.796116621407 155.607862259934 158.066575741959 159.835095579667 160.755228132589 160.764878877058 159.886537637738 157.897760781702 153.949631773264 149.245911819577 145.049059585455 146.001124809791 148.663532244892 150.535040847242 151.434546427485 152.446110635199 152.635573659093 153.7948992258 157.809521124501 172.184895503006 172.542828446052 172.252030668393 170.360535279539 171.921337142692 175.58582952361 178.184352494563 180.007009283696 177.134569231245 180.140300666732 188.26488445452 192.331182864051 194.070994075712 193.85544211832 191.291487662942 189.172815889047 185.788477146459 184.286668977432 182.329399057197 178.496615543322 182.412638026935 192.565220063639 197.361558243749 199.863569661977 202.681286507458 209.166191641039 210.122885677354 211.735954888771 215.77093428739 215.935661615585 208.647032606785 213.643463251731 222.871663553788 227.423590553119 230.752351438625 233.604673617842 236.516565739685 239.408874748222 242.136389647585 244.378693864066 246.97892423402 249.894474472047 252.527470262214 253.698142295936 253.309715495343 246.310133439253 235.057859505736 227.337619694844 232.937850026177 239.371576539137 242.209927535598 234.636752816012 228.857453095109 221.957827542199 218.793522415075 218.020632465353 212.880534082798 205.670343791233 205.035066758186 203.725588820048 204.395112689432 210.927148830092 219.115742841326 229.433115726721 239.53032464814 251.652459730929 259.227661956344 266.748586168013
0 0 0 0 0 0 0 0 0 0 0 0 0 0 0 0 0 0 0 0 0 0 0 0 0 0 0 0 0 0 0 0 0 0 0 0 0 0 0 0 0 0 0 0 0 0 0 0 0 0 0.00098217114194996 0.0347702749496001 0.363646646113717 1.13980607787185 2.64978205240639 4.358124074015 6.15549382567006 7.60740610945938 9.18795562557983 10.085081668958 10.3025791547305 9.47790265590625 7.71998292335188 6 6.00749645487244 6.06148395228663 5.13421821469049 0.179836898109946 0 0.0305173886209905 0.445804708123784 1.01843743958962 1.46554006482396 4.43763359826276 8.72842665416954 21.2243760389873 48.2156635667005 75.7777152451268 96.5999973418831 103.671032888196 106.470032773218 109.282327956962 112.335610749391 116.218136322419 120.850785183792 123.074146200819 124.645553851897 126.108435008565 127.36536811965 129.146373919287 130.154759996732 132.130743470548 133.868718895189 135.583360978122 136.614424793194 138.001647184101 139.129220493008 140.114060234958 141.092887854572 141.809817586289 143.668824062473 145.460402563858 147.283248842723 148.854078991923 149.887857235634 152.168030130347 155.820631303197 158.142300550707 159.589980569109 161.000503454281 162.284584569614 162.387400578335 162.399333545554 161.098037402258 157.972049763675 153.153614727408 147.69447080407 145.298862088913 147.100010765638 149.422214720322 153.3002817286 156.0263446176 157.47011342144 160.051512565146 166.842963016309 172.11343933917 173.447806235575 173.573809185388 174.650908456344 178.851464813605 182.895254244633 184.038254274799 186.667832356672 187.073751027611 186.488500661334 187.942464384579 187.906336831332 187.752575375887 185.37609853235 176.139673003648 172.197231394267 169.734504147931 171.158896693259 174.878263473326 179.245823567864 186.819189319082 197.468756269381 207.750908194825 210.83492948583 215.678138579354 219.070729526708 221.178620722777 222.477688129784 224.011624607302 224.543468205173 220.37306667173 222.573504807907 227.270850173502 231.852059708453 233.283956802529 235.160839077124 237.506832206696 240.281586289098 242.076018029053 243.96514417296 245.994323096146 249.291959577763 250.826924071387 249.890163613607 246.93930673839 238.912016294233 221.678880130871 209.192798520655 216.571136364111 224.484882678 227.303308078987 223.310148413422 221.205278992461 209.588819846803 205.659905791272 204.553823584348 202.791069765139 200.257085261999 200.83155826992 203.995518857902 209.591104760696 218.486930647546 230.427425279379 241.428298414406 249.925510115439 263.721237446577 269.379143375123 271.639618816901
0 0 0 0 0 0 0 0 0 0 0 0 0 0 0 0 0 0 0 0 0 0 0 0 0 0 0 0 0 0 0 0 0 0 0 0 0 0 0 0 0 0 0 0 0 0 0 0.00130383910514403 0.0208525141123612 0.00207782871121381 0.0642519250741277 0.580265228066706 1.51625409396477 2.45471331511355 3.89944620556346 5.93006775178574 8.01527020919801 9.73527193618281 11.2479768629359 12.1454482965562 12.8176265413852 11.9710140398656 7.52166641897453 6.93484941761936 6.71888297481465 6.38013826801469 6.72330296952745 2.95451334026384 0.0722635861574734 0 0.07515849089002 1.07563666056188 2.43073487307169 4.31347364849919 6.36480542832647 11.8854933525275 32.0832546234096 61.1900798747261 88.2867910314991 101.86929450306 104.180638885579 107.451907788007 111.371289972426 116.073079887723 120.677720274384 123.09235626802 124.621633951617 126.030315427825 127.112601986522 128.169595664406 129.152692726161 131.214481511114 133.878673129335 135.768263414553 137.068829899747 138.202801821429 140.035500952556 141.042377909819 142.121128989727 143.803271586142 145.040662289648 146.828610456961 148.729861059266 150.996116124527 152.425963855539 155.127979984586 157.818872227921 159.677078247051 161.122662783042 162.532556586053 163.897611339647 164.600022497035 164.989081315967 164.112302462456 161.04844855506 156.732656498211 151.986398457513 148.139188277042 147.501442236478 147.600866663041 150.231371719127 152.884823213207 156.455137131982 158.332849806552 160.90482178529 163.643960387032 166.705302296185 168.188006713383 172.44899851508 176.170300920927 178.918080036871 181.471701708749 181.81751077746 181.703732330882 182.287792667076 183.704322688863 183.427604956947 180.028693965123 171.07518131843 167.309144872765 169.117002900572 170.88583373104 176.396638499179 181.336864442797 186.416349241766 192.884025362552 202.290687133848 216.644208742799 222.532276798735 222.775488730016 222.18834889074 221.060156819072 221.146013427443 221.884823281735 221.227160772027 222.091945988998 226.036976803688 230.387902095416 232.700050826632 234.262484606165 236.249789395245 238.172961015641 239.549251002358 241.054027997035 242.555841809111 244.984530056888 247.705561257536 248.567275864091 245.91123008653 241.8083779559 233.078864234168 211.271594134843 201.233933642681 203.813520145245 213.796392110818 216.637986056546 206.560932344952 206.744702263123 201.990297043369 193.470122320152 194.032524172804 196.940423391177 202.312799249316 207.961315473295 213.971640481149 223.627928939375 234.490307495538 244.501974704609 254.201181982175 265.163189809339 270.412302738522 271.919777973518 269.316505139663
0 0 0 0 0 0 0 0 0 0 0 0 0 0 0 0 0 0 0 0 0 0 0 0 0 0 0 0 0 0 0 0 0 0 0 0 0 0 0 0 0 0 0 0 0 0 0.000210585693047542 0.0457952996088998 0.685119668832046 0.183001691412647 1.16342690250048 2.06551090150697 3.02402997836753 4.05201787217141 5.5917978761855 9.00683652696467 11.4869079890404 12.9396404209429 15.4220925854076 17.3038867514178 19.2705130343085 21.4673486736943 26.3098569598855 34.1677928609708 27.8695562040401 15.9085410629088 7.80011842625978 6.51956939953119 2.28416982149862 0.0486877545507267 0.017871916399768 0.288667307118032 1.19924345137848 4.08699502551187 5.71254798881044 6.3645825603777 18.8744707819249 48.8095796390133 74.4186554234301 94.742102316601 101.180875368703 104.411098846105 109.04193813697 113.031227700708 117.659752610835 121.540686926717 122.906247553483 124.027872365337 125.236489279323 125.954841746361 126.175492892338 128.27244974814 131.802776170343 134.812323925093 136.037407660257 137.409489599816 138.784178575059 139.309573609873 140.308792814689 142.174048207196 144.138015660501 147.124708329866 149.093063901767 150.763089907077 153.496661722082 155.445640237603 158.192419801589 160.084491676386 161.167461504838 162.818873070087 164.723834220412 166.078103709525 166.688920095935 166.413673517381 165.275811036533 162.441885834506 158.18595514313 155.291808416367 152.877819218751 150.719656973151 149.848941650577 149.571006727868 150.372734390988 151.430884730016 153.616649221084 156.661213676409 159.291201951685 162.13408643808 167.605202680812 172.044703937769 174.91040621341 177.249418309203 176.534541721845 175.331457932753 175.026367331444 177.447580783431 177.492515351859 172.214076729075 166.237205633508 169.633912098715 174.905788716467 180.274908794979 187.136908718803 195.589385732202 201.568128112609 207.787426276064 210.506199480514 221.553114892532 222.677743013099 221.238486252532 221.951901999825 222.90447249922 222.791440496676 222.092629937924 223.168697417465 225.248605790064 227.330883932715 230.124224286072 232.128808633278 233.288330543311 234.88154509156 237.111524262004 237.362020922218 238.229066466392 238.727648260785 240.869352201273 245.783056032563 247.084850754041 244.099787296753 235.922134204763 230.442567724793 220.340646731461 203.307704643799 194.320655665844 203.806087273794 206.554737507904 195.849203699797 194.232400106055 192.824462519744 192.610040890118 198.883036401122 207.485117503455 218.131301701355 224.580870500965 228.865406257245 235.900277861584 246.332300340887 254.908669259741 264.1342217265 270.018815961689 266.669048980627 254.811327515347 256.275806175861
0 0 0 0 0 0 0 0 0 0 0 0 0 0 0 0 0 0 0 0 0 0 0 0 0 0 0 0 0 0 0 0 0 0 0 0 0 0 0 0 0.00461142825435536 0.0872962590295909 0.096073717110493 0.0614085450415186 0.0631715877501332 0.123233056043724 0.179137994907056 0.501161439211292 3.1813742470751 3.71453317396697 4.62754208261487 4.91457087097926 6.49873384764895 9.07375557619483 11.8704285293967 14.2039033695138 16.5772200049842 18.834402456277 22.3983507578446 25.6941912688763 35.4002192932335 47.684151297848 60.2115070607579 69.8219784459665 61.3747465477864 44.5412230985783 28.0941367499323 25.0580575784978 8.55472248628066 1.54405526429513 0.0286505842959039 0 0.136146586505349 1.77438808369606 2.25860294779104 1.92063838965214 6.80642368406465 26.731164384412 53.585148583789 75.2125319772674 91.7763919933068 98.22980780787 102.400333270961 107.990443977787 111.101692406059 113.05152458596 115.933529635053 120.049010097514 121.871343601964 122.64411842447 122.71474568023 122.730459513877 123.121490202497 126.637550462227 131.047588865874 132.083756426078 135.063712117949 135.067704139901 136.154116954432 137.331133019173 140.26066494574 144.762175218017 147.103681928677 148.312839095995 150.465558051337 152.781571572897 156.559215224633 159.135542824537 160.943082951337 162.359194123895 164.361200568328 166.199276188699 168.050760854772 168.796055488389 169.699149262666 169.607401537162 168.138616370345 162.547928393747 158.706719893821 156.784195121076 155.399521751926 155.698090517821 157.544416369636 154.998437781405 151.696532592427 152.586855896827 154.994692920863 156.367887556813 160.77373621039 165.241017689339 168.647645310879 171.609855130126 170.692157214049 168.979923960741 167.343050867798 170.78731716234 170.482190952622 166.688339220862 166.177206754014 173.1729731345 182.190280918251 188.170406516962 194.888857252577 198.124562441366 199.436551803872 200.864635465169 205.138649054492 209.143373556938 208.096640111255 209.682187676147 216.407208872635 219.903399435661 220.798726869885 220.842767309283 221.520893483078 224.225939074192 226.26254791706 228.969845401617 231.19366643266 232.66307100349 234.298575765593 235.180236891751 234.74562125093 232.590222273147 232.225757334253 230.626298314026 235.672598951923 244.735132525232 243.517530987189 234.449170566453 217.482895245232 213.637624636169 206.76496615017 188.901352398732 191.897870663636 195.3980278851 185.958650670417 186.098478995406 192.275616276621 201.594918275778 209.772709663405 221.525854242256 232.086912979783 241.42647186752 245.157015237386 247.732054122194 256.320514060585 264.943764371261 269.754593701846 266.116913616953 253.305817602363 240.010084329807 236.047271411185
0 0 0 0 0 0 0 0 0 0 0 0 0 0 0 0 0 0 0 0 0 0 0 0 0 0 0 0 0 0 0 0 0 0 0 0 0 0 0.000758185669915642 0.0225676577439791 0.292186936573059 2.57457942425048 2.84029321069618 1.92042977770832 1.96864652126471 3.62228140981924 5.05659240687122 6.82138425920987 7.90277108004957 9.07636773265242 11.6700217114759 12.5489688735661 13.735392869309 14.8646633276582 17.3412448151669 20.2174666516499 23.192865324662 26.5279114523028 32.7681957690847 42.2813012496367 59.5096143038461 73.0341193379724 77.9552961380301 78.5708301497947 79.4506516064179 74.8735095435287 60.6678511856275 50.6000614694407 26.5224667729988 6.62598154933529 0.954486948847522 0.0293357594912773 0 -0.00320973001424205 0.0419734475717511 0.981602896407312 1.33215516484337 7.05726964678257 26.3530679452786 45.94402133289 59.8980511641859 75.2388790800196 83.9396194787842 90.015092293117 94.2705286096784 96.9888981626304 98.9235900507209 107.023364666444 109.282757158719 113.205162253363 114.381205286519 113.233516770163 114.673602179185 118.116202035698 119.933048010374 118.457146257293 122.431394125585 125.218908683516 127.088759513815 129.090381346282 132.421819632425 138.822174695856 141.970485449701 144.743332125652 146.641633332058 149.991236562281 153.580741693308 157.377768010188 159.968740269147 161.338374995473 163.808835021233 165.619034795065 167.422172069615 169.362996490856 171.184311874902 172.749208045956 173.52998524181 171.706462248647 169.943858093035 167.620375957195 167.189317251167 169.664529636034 168.837892114211 164.014700231953 156.371427659446 152.738553404637 152.415530894934 153.600081688263 156.746422132935 157.826431132085 156.723706666701 158.739034551786 160.501241276302 159.353302768037 158.863715264768 162.078583200013 163.65936924704 163.269711861806 168.58089929426 173.541686197732 176.65805547168 182.12700565385 187.149739328317 188.095249430688 188.235899665917 188.770690054121 191.142232057073 194.026181052045 197.034257731772 200.957785436999 205.284342037045 208.453425853657 211.813285944973 217.186307640059 221.507029164652 224.145589653444 226.180154764263 228.929852886633 230.731711026669 232.099244508062 233.111349050546 233.4291228766 229.958278769876 223.104820314004 218.498644149979 210.799362492834 225.042355225625 237.112072677621 238.61308171726 231.957533987909 218.017927828548 203.346890873649 196.141588395923 183.550820627474 181.350763069794 182.027120307835 182.446010601672 193.909548677329 202.590175883544 213.171881778743 223.512563771074 229.409171025778 237.701550518693 243.91932412428 249.245736575373 254.719726822989 261.826921957136 268.208633017567 270.901916886014 267.447475390436 248.497713372111 230.968123958081 220.536174341676
0 0 0 0 0 0 0 0 0 0 0 0 0 0 0 0 0 0 0 0 0 0 0 0 0 0 0 0 0 0 0 0 0 0 0 0 0 0 0.0267672377280161 0.729765754916278 4.68489206810919 7.2090951180913 8.08334726742667 8.04211888669469 8.11967469031045 9.86646578669002 12.7388855770883 13.1621027317321 14.52081046369 16.9299642907203 16.9637810180694 17.2509648411445 20.1537837097859 20.972066240334 24.4922211554836 28.2544085663625 34.3428952480291 48.167781120692 59.6296391802204 73.8871840194902 76.2177140457705 79.9909382532986 81.8118271989795 83.2577914822782 85.1738866284344 85.9783513714336 88.1149823575371 81.2109370877631 49.967829827284 18.1067213523341 5.48058765367074 0.958558673971848 0.113578569833712 0.0507394192044027 0.034317812817988 0.0162570703886189 0.0566107408565488 0.882478346184667 5.58849240132768 13.5156679290795 24.7855917257115 35.1105162492527 43.1808351127968 46.8407262081544 46.1741518629054 47.4966323546384 49.0913437278874 64.0911401759095 77.4700718428684 79.6085303772614 86.9512184421652 96.4527854066575 105.272769364599 108.339482770438 109.068752823605 108.568986797974 112.181802212605 114.776836866141 116.514754593443 117.588580562006 122.633836918448 131.672782948717 136.716054521996 139.729665173102 142.769270639463 146.447252514716 149.41132902135 152.580301409329 157.051018744994 159.919866877971 161.962297282663 164.745564391682 166.805685573445 169.326262254106 171.235645561604 173.220988735023 175.620686790081 175.813157041243 175.733109959181 175.651363967906 175.276656032661 173.684755124433 172.83128301398 171.339039978418 166.380359174004 159.084937442274 157.851156547386 157.359053783888 155.769089331033 156.949854094355 157.144922456524 156.767806468751 157.844326364716 159.351790290824 159.612989430989 160.92871175311 163.733345953347 164.661574948739 164.09290989173 165.286866901518 166.74163504549 167.587157306535 169.328440673142 172.500746425084 180.703613747729 186.289968316066 191.396694345933 193.975575196749 195.238605411202 198.712815021643 203.32680434634 211.581114940844 219.862171262662 219.77502603407 222.413154046983 224.384705092059 227.06968178935 228.793578085725 229.610284245851 230.371707975894 230.762189351812 229.28298006293 220.039820676831 208.575824462142 202.081908396475 200.24526482313 218.825957194813 228.745709888973 230.910612331406 226.963263087896 215.202974933981 198.105491422906 181.752178825238 176.106992480243 179.285631180227 181.729106888573 184.45227170737 189.224895586504 194.98559437225 203.51952308174 213.360943498598 221.224472445297 229.969819382337 235.500989263561 243.205527406875 251.827460882096 260.694243086443 268.656917983727 270.872446234295 268.19911185171 255.456561259546 238.862641174649 219.346475185414
0 0 0 0 0 0 0 0 0 0 0 0 0 0 0 0 0 0 0 0 0 0 0 0 0 0 0 0 0 0 0 0 0 0 0 0 0 0 0.191405167110647 3.90222663204614 7.4755366590071 9.01973635871619 9.2587374302412 10.1899837691328 11.2303873903878 13.0641723647588 16.2234448439993 17.8768570748346 20.9442527175143 25.0272411791453 28.9852510640974 30.8218917704656 37.7054025713155 37.8415811517914 37.7501405434421 45.846151365081 62.9409883055969 73.20988056082 79.1352064178972 80.0272905075181 79.974957778654 81.6937928544127 84.5614411627298 85.9764001183749 87.4450094839009 89.6858832773165 88.4116993407769 90.6749164614161 78.2282504190981 40.1387284464032 11.074807439063 5.3943838399083 3.09906544554162 1.43426632693095 1.0517346213131 0.589859019107918 0.574886845842203 0.567877732682315 0.47697843647189 1.17910783191907 2.75018500721078 3.50732779373092 3.58748158857356 4.95091389350521 2.02143825676816 2.82774770047075 9.40156646494831 16.9789591448063 25.6687543906285 30.4187348566059 40.099238298223 48.5447257667093 60.9284117576601 74.0561306091647 84.5906293168257 86.2697791452613 96.0259964616039 100.956856076524 100.874192772243 95.4923842043802 108.615353890783 121.156248753194 127.792733590251 134.426952386497 138.492737455849 141.74886779353 145.438384698613 149.305711120319 153.327263681751 158.03110860526 160.881719548358 163.285429853202 165.568325616701 167.597763644655 170.317593497441 172.445627776964 174.974625857422 175.848753207046 175.054514654759 173.653343363752 172.261783553958 170.78574802657 169.069115330427 168.722777211552 170.333207640123 171.90997925718 171.661960331837 171.30805678125 172.385751676408 174.355834733342 168.202943282205 164.360374696186 166.987554879426 172.119626629645 175.254346012717 172.678221871193 174.388297547496 179.174346700345 179.796146170668 176.005643157341 172.837883950885 175.320001706671 178.793217702247 186.520009428073 195.515459842491 198.821811803729 201.178115948274 204.397949598345 207.163046363599 211.19657984378 215.799049207184 224.203122952486 224.531379008074 223.096610333213 223.431873665565 225.218923669695 226.775689455738 226.780301348382 225.976888546188 224.098847416348 223.599846879099 223.678684551099 216.458596215995 198.539459187039 189.091418811064 194.599628667932 209.805574375142 220.51673562044 222.690853650893 219.202852638614 208.957039706975 192.176637279694 174.602400562081 182.408419866145 193.135582490609 201.089914195727 203.204077020395 207.507306453825 212.564167959033 221.202030525975 218.977465044408 225.025332695783 229.675856496131 234.906329290196 242.706645163238 251.707278271321 260.282950229283 266.934163184396 268.58801951962 262.329218972799 251.589764235053 244.299677404824 231.544683082424
0 0 0 0 0 0 0 0 0 0 0 0 0 0 0 0 0 0 0 0 0 0 0 0 0 0 0 0 0 0 0 0 0 0 0 0 0 0 0.262291531534649 5.2380773749789 8.10307525745135 9.32796991814326 11.0568743789912 12.2679829260037 15.2774667322334 19.1203489230748 21.2511642282475 25.2777451136339 32.0990228649701 44.4487418666183 58.2270922449617 63.2529950808252 65.2281023401764 69.5078908944512 67.9322637832124 64.6118020997697 72.1225231448778 75.4850924950115 78.3525100041022 81.1495434352079 83.0860857266733 84.7188789503095 86.0523290466264 86.6004782115475 89.0070080120541 91.0615976101945 93.4294195499413 95.4898765223545 93.8971132899251 69.8383858746099 29.3998150852311 9.49416794239768 5.99995363611856 3.98165065201278 4.78394009253895 4.65939022669627 4.61415164704569 4.09982140113768 2.67846863414961 1.74562273036373 1.06169454643661 1 1 1 1 1 1.19558232308807 3.81061406654324 10.5749886314851 14.6825528291765 18.3725326164279 23.6541679895136 30.8418113696583 35.9215442167784 42.2790536358988 52.8438601803349 64.2987834493032 67.9278514963089 67.9587956203906 68.5228262324974 84.0316615270054 101.153371871333 113.635858756604 120.965954440771 130.52594162182 137.635683298321 141.307151767008 145.294652139254 150.171971248981 155.768725032745 159.811360496151 161.659418844554 163.632533382209 166.579759216724 169.468586021654 172.212234455827 173.914207765948 173.915321162255 172.217023826755 169.970011452459 168.97892801571 167.481250950651 163.664109755487 160.674519772952 162.708567986876 165.674799509573 166.88269111827 168.290866864532 176.985441586389 184.645454951082 182.546027011682 181.476941100387 183.439074099253 184.380239099405 186.480718899096 186.792943356245 184.514555244719 184.971868126479 187.376051442956 188.279243782072 186.113583018512 185.90829779656 190.223476101243 197.256772174163 200.373580688998 204.953144278454 207.838900369558 209.319021888789 212.222700665307 216.158849663477 220.975257154459 224.318553432192 224.643967602954 223.597869225369 223.982054442979 224.811508113888 224.937872448976 224.496524236767 221.635577453671 215.819756079848 210.504721908782 213.21420553897 212.134982783911 197.348685877625 182.750416860526 185.492498881796 198.524326397072 207.416980817256 210.284461075201 205.48946299118 191.829466436057 177.255912730751 172.528777855023 184.417927282934 201.763946110197 220.101249734605 223.777193588607 225.282429311326 230.234410457854 234.869192245499 232.27496297711 233.763054516295 234.415763033787 237.673217641572 244.627958830705 250.043685143972 255.247093692686 259.669904871329 260.686346239158 255.009851096119 242.299714921544 236.462734928834 232.186776408566
0 0 0 0 0 0 0 0 0 0 0 0 0 0 0 0 0 0 0 0 0 0 0 0 0 0 0 0 0 0 0 0 0 0 0 0 0 0 0.193824106033518 4.03201813167064 9.03027093492994 9.32628740761606 10.9220992662732 12.2487809899981 16.7705345792735 21.9485771921256 29.6867543255586 41.6683214937726 53.345233040694 64.228871097993 67.6040018859998 69.3753403231464 70.2793933797634 71.2716487213633 72.105221141725 70.2764005957196 72.738557949981 75.4865525498776 78.4142274441078 81.3005268557222 84.9716378147553 86.1044324470258 87.0435882009832 87.1475938413594 88.7357537157418 91.3914793819243 92.960970108238 94.3920397582375 96.0060506636149 89.8492882172215 64.8457803160923 30.3271336820174 10.9472621493825 6.33505799148456 6 6 6 6 5.97876696211043 5.49805084395244 2.65473652490302 1.00798371351425 1 1 1 1 1 1.06719286607235 2.23066753787716 7.57411337017765 12.5511439400865 15.4762866796436 16.979347044539 18.3986362499495 19.6457216133625 23.4928510845514 34.9370901921055 39.5384578891719 43.9365548436717 45.5338912449933 56.5096085107126 72.0233951940618 82.8069793272249 105.638110210907 122.943333326856 131.012132260924 135.909098427303 140.353129573862 146.13524376189 151.785692981181 157.281335434223 159.941933694997 161.557121839095 164.991134636124 169.503683351302 171.98234465357 171.985819537811 170.970241619566 169.057761961336 166.332546279809 164.991680888846 164.300019929074 159.320833835749 150.255016939844 150.785731391446 155.132607303726 158.135600909051 160.154909828269 173.68138989798 182.025214162874 183.945154332699 183.022659054109 182.327853283967 183.329409313905 186.256628096523 188.232215506148 188.360581363593 186.021838382249 186.53713113416 187.356501849757 187.647399332471 189.995337719451 194.218174674507 195.936689442993 198.733754175011 201.484615136417 203.086583149496 204.163047742608 205.933014745434 209.993550935903 216.707150572887 220.69780877031 222.002655898499 221.550770574407 221.98597165476 222.871837245841 223.551066456068 221.705775061682 214.934260747363 206.575041520066 200.27309130233 201.747150558778 207.57257828864 195.036891287821 181.759519562494 176.607927644675 186.507918107831 196.580035399205 198.544923558039 191.761679101917 176.668073798889 169.792366260812 176.207589383661 193.48092773444 205.63633496965 218.632849156679 224.11439934786 228.529520616294 234.799995285538 243.987971571384 240.082259900866 234.886296548078 231.395120991031 230.901905630523 233.08071145798 238.75387276389 242.606410266211 245.619609809618 246.38586471374 244.300735059058 233.314530595402 222.985121043039 214.949602972184
